# .PCD v0.7 - Point Cloud Data file format
VERSION 0.7
FIELDS x y z
SIZE 4 4 4
TYPE F F F
COUNT 1 1 1
WIDTH 1521
HEIGHT 1
VIEWPOINT 0 0 0 1 0 0 0
POINTS 1521
DATA ascii
-98.358986 -12.132337 5.7851477
-98.269531 -10.277301 5.7002759
-98.355789 -10.121487 5.7188959
-98.249374 -9.9305134 5.754796
-98.61116 -9.0412674 5.6593609
-98.493729 -8.3293648 5.7690215
-98.416229 -8.0334721 5.7448854
-98.354004 -8.0549316 5.7027798
-98.215706 -7.9127378 5.7183671
-98.809387 -7.2097678 5.6316962
-98.491028 -6.9675102 5.7553988
-98.859993 -6.4048262 5.6328964
-98.592468 -6.5289097 5.7688341
-98.812607 -6.2523093 5.7753711
-98.426132 -6.3053465 5.738421
-98.400246 -6.1854506 5.6405101
-98.311775 -6.0726957 5.7591047
-98.228088 -5.9301949 5.7603321
-98.446022 -4.8641386 5.7861805
-98.383751 -4.8844919 5.7754965
-98.849419 -4.4962573 5.7685575
-98.432732 -4.4604559 5.756784
-98.38092 -4.5116243 5.6517272
-98.498573 -4.2770696 5.6638288
-98.322983 -4.2914495 5.7437334
-98.27491 -4.1495719 5.7752891
-98.156921 -3.9637618 5.7293406
-98.606262 -3.7936931 5.6138587
-98.497444 -3.122107 5.7398963
-98.241554 -2.8434319 5.7512412
-98.401619 -2.3056903 5.6465621
-98.29007 -2.1205449 5.731863
-98.19117 -2.107302 5.6595345
-98.140213 -1.9778872 5.7020187
0.22029157 -1.8330741 5.788125
-98.478531 -1.7801342 5.7675734
-1.9084672 -1.7003846 5.694171
0.33305556 -1.6274122 5.7234049
0.50556409 -1.6414702 5.6822777
-98.35041 -1.5677698 5.6911712
-2.02424 -1.4731474 5.7099791
-1.9566255 -1.5442936 5.7043562
-1.0047774 -1.5485344 5.67136
-0.56829226 -1.5793359 5.6575832
0.46542835 -1.5392739 5.6567492
0.49660495 -1.321306 5.7598057
-2.0099998 -1.150758 5.7511621
-7.7648511 -0.81243658 5.7823753
-5.7833447 -0.93197012 5.7829299
-5.1868896 -0.93321013 5.7830696
-1.9957197 -0.97721922 5.7328272
0.51795316 -0.8443532 5.707408
-8.5596952 -0.79098523 5.707397
-8.3411283 -0.77140063 5.7529526
-7.3456936 -0.73593318 5.7389116
-4.4240265 -0.62700772 5.7259073
-4.3804531 -0.63819748 5.7129974
-2.6733463 -0.70926213 5.7456555
0.53364515 -0.71658456 5.688592
-98.251678 -0.54149312 5.7494888
-1.9552358 -0.58137643 5.6991949
0.54028565 -0.51846725 5.7877235
-98.307808 -0.30792814 5.6941504
-98.097389 -0.26193285 5.7988334
-1.9473459 -0.25450158 5.7985349
0.55603081 -0.29017404 5.6849165
-98.359291 -0.11164618 5.6849251
-98.131393 -0.091345176 5.7077942
-3.1746676 -0.11851108 5.7967758
-2.9806454 -0.12938899 5.7871666
-1.9516957 -0.0754802 5.6920838
0.56322396 -0.095244281 5.7456355
-98.123398 0.034957882 5.7167563
-3.1871874 0.12500405 5.7937698
-2.6182518 0.13696936 5.7503653
-1.9241797 0.12307096 5.6076407
0.57469177 0.077298343 5.6828399
-98.243736 0.22513938 5.7595215
-2.269434 0.3744078 5.7589703
-1.9571449 0.26262382 5.7703381
0.5638718 0.33758074 5.6965818
-98.197395 0.4155674 5.7577977
-5.1977482 0.53432482 5.6051521
-3.1824837 0.40744811 5.7907143
-1.9547683 0.47852159 5.6735225
0.57968462 0.51169616 5.7654982
0.6158759 0.57630181 5.7161903
-6.034122 0.7922197 5.6143961
-5.6625438 0.78577447 5.6097651
-5.2784872 0.78068781 5.6205988
-5.1898537 0.77818829 5.6321459
-1.9156158 0.72758448 5.6813402
-1.6052818 0.772174 5.6158528
-1.457793 0.76261866 5.6903472
-1.0248759 0.74071121 5.6247435
-0.92537773 0.73798442 5.7162638
-0.55601776 0.7123695 5.7371435
-0.35957897 0.711519 5.7834759
-0.1609388 0.69629312 5.7688618
0.011820273 0.68167937 5.7547884
0.59956783 0.79862928 5.6033225
0.62245768 0.67739534 5.7009583
-6.3559113 0.83795691 5.6103311
-6.1366658 0.834629 5.6161594
-5.7493305 0.81963432 5.6268268
-5.3977127 0.80741459 5.628931
-5.1892142 0.80122721 5.6398215
-3.5175161 0.9758566 5.7502179
-2.8653812 0.95754129 5.7988153
-1.9341298 0.84618312 5.7673416
-1.6563084 0.84279704 5.7335577
-0.67618245 0.97953939 5.7157135
-0.47380477 0.99096894 5.6480427
-0.25301194 0.98496717 5.6767154
-0.15243211 0.97402596 5.6683607
0.14394301 0.91329521 5.6367459
0.55756438 0.86214626 5.7093763
0.62907308 0.89043385 5.7186289
-98.063721 1.1987889 5.7636056
-5.0644584 1.0537063 5.6561236
-1.8789508 1.0851617 5.7302375
-1.6529233 1.0707442 5.6464586
-1.4613986 1.0482044 5.6521249
-1.0304844 1.0227151 5.688942
-0.80616289 1.0291001 5.6170192
-0.66243809 1.0041302 5.6506691
-0.49469396 1.0280426 5.6507978
-0.29766586 1.0172684 5.6768064
-0.19381803 1.0830166 5.698554
0.59126586 1.010156 5.6676049
-41.929142 1.3186841 5.7638416
-3.3052645 1.2543304 5.7768478
-41.954025 1.5425353 5.7213326
-41.592491 1.4076347 5.7202902
-6.3504753 1.4838852 5.684556
-5.0484352 1.5224347 5.6155558
-98.08049 1.7641096 5.7278743
-97.981865 1.6467507 5.7435431
-3.0233707 1.7902551 5.7666531
-2.9634113 1.7681447 5.7144575
-2.3387704 1.7506907 5.7612123
-98.081787 1.8430345 5.7213149
-97.983627 1.9138114 5.7247992
-41.938324 1.9251438 5.7903395
-40.452236 1.9061406 5.7818828
-3.0291026 1.8279365 5.7693615
-2.9560616 1.810065 5.750412
-2.7686837 1.8070848 5.7770762
-98.060532 2.1232462 5.7364802
-97.937378 2.1475759 5.7516823
-41.912048 2.1103766 5.7575903
-3.052084 2.1102557 5.7079201
-2.9639397 2.0894716 5.6772256
-2.7352278 2.0814247 5.7130814
-40.399055 2.3433523 5.6156282
-3.0381198 2.2885661 5.660449
-2.9735165 2.3778901 5.6458559
-41.877304 2.4835157 5.7378998
-40.416451 2.4956837 5.7041407
-40.392403 2.5189352 5.7630939
-2.914391 2.4572735 5.636404
-2.7584486 2.5031495 5.6217632
-2.951406 2.6554058 5.6078863
-98.039474 3.0579937 5.7555556
-97.949104 3.1175046 5.7169895
-41.876339 3.0439925 5.7906713
-40.391773 3.0457139 5.6575098
-4.6542878 3.0824535 5.7092128
-4.5076041 3.0872622 5.6430216
-98.030151 3.2933624 5.7632427
-40.377396 3.3893847 5.7571769
-97.900497 3.5206773 5.7139034
-5.2852106 3.5822053 5.7732701
-4.8767962 3.5099707 5.6883249
-4.5321541 3.4984581 5.6842151
-3.7172606 3.5740557 5.7946048
-2.9539981 3.4064786 5.7958088
-2.1168637 3.4686127 5.7701321
-97.948807 3.7914734 5.7392826
-41.391537 3.6968153 5.7096434
-40.342712 3.6338723 5.7275209
-6.1816711 3.6931434 5.7206578
-4.1670666 3.6169653 5.6763735
-3.8586631 3.6142468 5.6952276
-3.7951581 3.6096821 5.690443
-97.783897 3.8483145 5.7703686
-98.001167 4.0015521 5.6384363
-97.919754 4.1300058 5.740797
-97.939697 4.2788005 5.6852989
-97.859673 4.7935686 5.6571722
-97.656258 5.5750341 5.6713829
-97.824982 6.1707792 5.7905278
-97.569054 7.7756195 5.7988958
53.415756 -12.59322 5.8200717
-98.425987 -10.187244 5.9126797
-98.338158 -10.059931 5.9480557
-98.289215 -9.9488039 5.8684196
-98.650223 -9.1240807 5.9093847
-98.56868 -8.584465 5.8643055
-98.479759 -8.2945175 5.9475193
-98.409416 -8.1179295 5.8903923
-98.231689 -7.9239564 5.8124237
-98.526711 -6.9566455 5.8781147
-98.747421 -6.4077711 5.8498874
-98.490295 -6.353179 5.8603153
-98.370682 -6.2473512 5.9869065
-98.30864 -6.1992059 5.8405395
-98.609184 -5.5960274 5.8423624
-98.429832 -4.2305365 5.9022317
-98.190071 -4.2213535 5.8818917
-98.225136 -4.1241074 5.9081407
-98.199638 -4.0616794 5.9532332
-98.658195 -3.7949886 5.8853703
-98.485474 -3.567312 5.8185153
-98.331955 -2.8913951 5.9424009
-98.305054 -2.5169125 5.8348007
-98.368561 -2.3151355 5.8926449
-98.070747 -2.3410637 5.9312105
-98.548668 -2.1058555 5.8576202
-98.226921 -2.1200478 5.8842301
-98.195152 -2.1428082 5.857614
-98.442451 -1.7531843 5.9747801
-1.928383 -1.6744573 5.9309006
-1.7181066 -1.7215621 5.8730311
-1.3078849 -1.7475462 5.878232
-0.90202987 -1.775745 5.807776
-0.66080242 -1.6245306 5.9069667
-0.15898401 -1.621012 5.8392792
0.28091365 -1.638779 5.8553791
0.46731073 -1.662715 5.8664188
-98.323738 -1.5568507 5.9755559
-2.033546 -1.5129354 5.9569449
-1.8135195 -1.5051084 5.8011117
-1.4251043 -1.5328133 5.8383436
-0.21360955 -1.5597847 5.8079414
0.20037246 -1.5607162 5.9422598
0.48202777 -1.5599598 5.9061527
0.50447881 -1.390728 5.8392854
-3.5739086 -1.0134318 5.9620266
0.49111378 -1.103061 5.8144598
-98.234131 -0.86195952 5.8823452
-8.5469818 -0.83722913 5.8760223
-8.1796827 -0.83184958 5.9412441
-5.2888985 -0.96666372 5.8565454
0.51226205 -0.85479546 5.8512926
-98.220482 -0.77776122 5.900609
-3.4149718 -0.69514567 5.8208313
-2.0056715 -0.73355681 5.8839641
-1.9552712 -0.60344148 5.9084144
0.53092623 -0.72010845 5.8626232
-1.9666646 -0.58735466 5.8120942
0.55155885 -0.47724459 5.8782825
-98.248833 -0.2995553 5.9744363
-98.17765 -0.26441693 5.856988
-1.9580507 -0.29735458 5.8068571
0.5587756 -0.34874636 5.9301434
-98.419312 -0.067738891 5.8324337
-98.346107 -0.038253784 5.8409791
-98.096512 -0.03525915 5.8770943
-3.2291763 -0.1444971 5.8628864
-2.5675035 -0.13222516 5.8012886
-1.9372833 -0.091744423 5.9242468
0.57126415 -0.090409562 5.8847456
-98.072189 0.04717958 5.8221102
-3.2044656 0.11360115 5.8099618
-3.1967394 0.1336444 5.8153772
-2.9481354 0.18867406 5.8007689
-1.9344568 0.17156777 5.8964133
0.56174117 0.056767028 5.9115896
-98.387993 0.23029423 5.9800286
-3.1774449 0.39158207 5.8060064
-1.9579968 0.27815408 5.9423442
0.59383792 0.23621684 5.9089632
0.61709386 0.36223257 5.9233451
-3.170393 0.40876269 5.8039913
-2.9599473 0.58136386 5.8428564
-1.9241669 0.56377244 5.9213972
0.59620297 0.49334329 5.8911328
0.61654168 0.5612874 5.9049449
-40.572708 0.69651258 5.9140387
-3.1522224 0.66105473 5.8757191
-2.671658 0.64072526 5.848803
-1.9616528 0.70936316 5.8154578
0.14925498 0.6894477 5.8643012
0.59318042 0.79514772 5.9471512
0.63100564 0.79056585 5.9574451
-4.3679099 0.91849655 5.8289313
-3.1356363 0.92819655 5.8935318
-2.7720532 0.87717336 5.8853917
-1.9200306 0.85910571 5.9001379
-1.6919529 0.85431015 5.9081907
-1.3171482 0.88463384 5.9763522
-0.65097809 0.97961879 5.8972912
-0.51080537 0.86659026 5.9379845
-0.27255219 0.9752636 5.8355045
-0.17994741 0.97282267 5.8553948
0.56388152 0.91304475 5.8909636
0.61480701 0.9174583 5.8657703
-98.092316 1.1007457 5.8983946
-40.522182 1.1424193 5.813035
-3.1240642 1.192255 5.9373488
-1.8908386 1.0736613 5.8597784
-1.6815305 1.0520157 5.8807077
-1.5259802 1.0657088 5.9200335
-0.92207396 1.0177443 5.8828406
0.28746748 1.0073729 5.8941994
-41.94136 1.3732586 5.8824515
-41.388592 1.3626707 5.8763552
-41.017906 1.3331338 5.935092
-40.761208 1.3307236 5.8990011
-40.480804 1.3942561 5.9197836
-4.270071 1.3567429 5.8327894
-3.1174493 1.2106018 5.9656
-2.9648814 1.3708339 5.9768634
-98.065437 1.5117729 5.8529162
-41.601036 1.436012 5.8358026
-5.3570232 1.597436 5.9317679
-3.0917153 1.4651272 5.9693184
-2.7204604 1.4492128 5.9719253
-6.8869791 1.7677358 5.8492603
-6.517015 1.7319591 5.8887825
-6.3985572 1.7171823 5.9756947
-6.1960106 1.691704 5.8572168
-5.7477608 1.6384573 5.802772
-3.0055609 1.7974936 5.8049135
-2.9892175 1.7750565 5.8249846
-98.237289 1.9581665 5.9394345
-98.012131 1.976032 5.9773479
-97.963852 1.8303925 5.8397684
-3.0404034 1.8381305 5.8066397
-98.058426 2.1301808 5.9587584
-97.93959 2.1255598 5.9295087
-40.43718 2.2464466 5.9464355
-97.959824 3.1801026 5.8717666
-41.795189 3.1664698 5.855237
-40.412289 3.0472713 5.8239441
-41.764351 3.2175267 5.8344059
-40.418175 3.3576684 5.9711633
-41.86834 3.5121231 5.85853
-41.738228 3.5446401 5.8496513
-4.8582373 3.5612698 5.8514585
-4.7233849 3.5505178 5.9222617
-4.5737514 3.5593843 5.9345961
-4.2566934 3.5027575 5.874135
-3.8616123 3.4787915 5.8622651
-3.320641 3.452311 5.8371105
-98.011787 3.7877905 5.8054667
-41.828396 3.7019916 5.8796558
-41.79744 3.6685591 5.8398538
-40.964859 3.6608448 5.9110527
-40.651943 3.6551385 5.8197594
-40.41782 3.6504724 5.9341559
-5.7414351 3.672924 5.8825903
-5.385385 3.6530108 5.960598
-5.0266685 3.6096702 5.9666934
-41.692966 3.9077253 5.9708147
-98.093033 4.0166631 5.849699
-97.890503 4.0775428 5.9232788
-97.857162 4.2199321 5.8712301
-41.704033 4.2392879 5.9071703
-97.926064 5.5656433 5.9551368
-97.710739 5.6257157 5.9744544
-97.808945 5.835618 5.8889227
-104.65273 7.9994955 5.8155746
-97.678589 7.8262644 5.9631257
-97.61776 8.0346756 5.8124132
-98.356262 -12.189635 6.1130624
-98.347519 -11.912523 6.1582708
-98.371429 -10.125952 6.0196757
-98.373222 -9.9718752 6.0655751
-98.662552 -9.1652966 6.1015091
-98.479965 -8.4219465 6.1292515
-98.553452 -8.2883415 6.1077127
-98.319824 -8.2802343 6.0793672
-98.327469 -8.1038876 6.0901518
-98.260223 -7.9475994 6.1111445
-98.811081 -7.1922479 6.1334057
-98.494545 -7.0692067 6.0297399
-98.775291 -6.437768 6.1129551
-98.346939 -6.0298047 6.1200953
-98.22274 -5.9945974 6.1333551
-98.579361 -5.5851583 6.184556
-98.386818 -4.8651743 6.1395941
-98.802208 -4.5281425 6.074841
-98.669975 -4.3810778 6.0831046
-98.532364 -4.3622379 6.1043625
-98.306786 -4.2216573 6.0444698
-98.207878 -4.1624026 6.1268902
-98.182526 -4.1225319 6.1511083
-98.176498 -3.9797657 6.1952834
-98.354561 -2.8423655 6.0118594
-98.281937 -2.5462191 6.0952091
-98.242874 -2.2309067 6.1417947
-98.542389 -2.1250191 6.1915445
-98.253555 -2.1162648 6.1042271
-98.150253 -2.1191602 6.1570511
0.29380023 -1.857401 6.1961894
-1.9409751 -1.6265647 6.1430244
-1.7829328 -1.7039185 6.1441355
-0.25931191 -1.6423464 6.131784
0.35324687 -1.684551 6.1353722
0.47871351 -1.6542382 6.0570154
-1.9510527 -1.5433139 6.0949755
-1.051084 -1.5716343 6.0677528
-0.66434801 -1.5869875 6.1042581
0.4788202 -1.469593 6.1651869
-2.0253282 -1.3695451 6.1711626
-4.5825787 -1.0175146 6.0551395
-3.6191742 -1.043062 6.0989876
-3.5960424 -1.0344859 6.0067525
-2.0098975 -1.1185515 6.1287689
-1.9573485 -1.0422316 6.0993795
0.49789712 -1.0582807 6.1341224
-98.268494 -0.90434217 6.1389894
-8.0595112 -0.8465966 6.1611586
-7.9544454 -0.83706379 6.0889053
-1.9644721 -0.83035344 6.0142279
0.50894314 -0.92938554 6.1267691
-1.9747831 -0.69378924 6.0594149
0.51361394 -0.73112059 6.0152535
-98.212967 -0.52108026 6.1778612
-4.3052936 -0.44691336 6.1104341
-1.9616462 -0.59813839 6.19314
0.52468878 -0.5165568 6.1324406
-98.279221 -0.31849027 6.0317745
-98.112114 -0.26015043 6.0671668
-1.9652716 -0.27233779 6.0840063
0.56164825 -0.33512023 6.1388512
-98.435654 -0.021085978 6.0493793
-98.22261 -0.18294573 6.131237
-98.106628 -0.055425312 6.181385
-1.9581571 -0.1319769 6.153718
0.57710111 -0.062285241 6.0466413
-98.214355 0.029671907 6.0214477
-98.131592 0.026640892 6.0712037
-1.9532791 0.056004848 6.019454
0.56103116 0.052868061 6.1487794
-1.9401531 0.28324825 6.1076231
-98.266907 0.42103148 6.054996
-1.9350697 0.48390591 6.0630703
0.54522383 0.52012897 6.1063585
0.614775 0.51669925 6.0818968
-1.9426339 0.69160753 6.041832
-1.7243103 0.78894973 6.0458322
-1.4690672 0.7510649 6.0081048
-1.1703552 0.73107612 6.0918593
-0.68366951 0.70616049 6.1430802
-0.1479934 0.68033367 6.1941233
0.62154239 0.72899938 6.1487303
-1.919089 0.88968849 6.133935
-1.6817657 0.97244871 6.1110601
-1.53354 0.98858196 6.0402641
-1.3823739 0.89880526 6.0747857
-0.94864404 0.93530715 6.1174126
-0.57460713 0.95178705 6.1734872
-0.14951429 0.94328785 6.1613503
0.26804715 0.91628444 6.1288037
0.58629632 0.87434173 6.0962124
0.60656857 0.90968764 6.0998669
-98.175323 1.0598567 6.1130033
-40.5508 1.0754412 6.196064
-4.4052577 1.0060523 6.0261698
-3.6131666 1.0227307 6.0590119
-3.5647726 1.0340732 6.1059675
-1.9005592 1.0371745 6.096509
-1.6681037 1.0233473 6.0687995
-1.3907273 1.0003173 6.1570854
-98.104874 1.3345246 6.1558733
-41.390976 1.3308249 6.1174674
-41.079956 1.3189254 6.1740937
-40.876751 1.3000264 6.1675315
-40.695877 1.2553248 6.1692791
-40.469898 1.3335884 6.0437083
-4.9841228 1.5934429 6.1528244
-4.7126694 1.5714016 6.1455784
-2.6102448 1.4562781 6.0042152
-98.047821 1.6568296 6.12005
-40.469978 1.7672468 6.1665297
-6.4769039 1.7146689 6.1842418
-6.2446241 1.7078571 6.1847296
-98.278244 1.9682565 6.1298504
-41.959705 1.8361592 6.1910086
-98.014801 2.129694 6.0873156
-97.952103 2.1459119 6.1857276
-41.950443 2.079452 6.1901121
-40.423805 2.7077723 6.1724157
-40.386688 2.7666476 6.1479845
-97.939125 3.1581612 6.1125708
-40.397476 3.0297194 6.0446968
-97.997589 3.2820663 6.1390371
-40.408283 3.3558393 6.1869173
-40.394302 3.3821738 6.1019797
-98.064445 3.5458734 6.1283021
-4.8435812 3.5776277 6.0754099
-4.738132 3.5697203 6.0241513
-4.5183806 3.5712478 6.0941195
-2.1580644 3.5052309 6.0727129
-41.789139 3.7651386 6.1154075
-40.946899 3.6620748 6.1062002
-40.661785 3.655714 6.1416445
-40.501225 3.6403041 6.1087899
-6.0028296 3.7454565 6.1196103
-5.7038832 3.7210202 6.1735258
-5.3087263 3.6598046 6.0537801
-5.0884213 3.6438375 6.1064749
-4.9079456 3.6182668 6.0650959
-4.7413406 3.6087162 6.1216908
-98.048103 3.9405866 6.1816049
-97.950584 3.8406773 6.1333017
-98.089638 4.0384898 6.1418819
-97.889961 4.048245 6.1893973
-97.842407 4.2631712 6.1256905
-97.811943 5.9603338 6.0251226
-97.820694 6.2036667 6.1018953
-97.600357 7.5764966 6.0444651
-97.530991 7.5522213 6.1389132
-97.575974 7.8217845 6.1269145
54.383904 -12.55091 6.3000846
54.781845 -12.507906 6.3923664
-98.433601 -12.358162 6.2897043
-98.372154 -10.408147 6.2930236
-98.438728 -10.121111 6.2611122
-98.353409 -10.042473 6.3267779
-98.244934 -9.983634 6.208087
-98.682159 -9.2444115 6.291954
-98.460983 -8.2277622 6.2225828
-98.318039 -8.0204887 6.3516164
-98.245499 -7.9679222 6.2585936
-98.544174 -7.0313101 6.2390003
-98.845413 -6.4718237 6.305769
-98.729279 -6.4460621 6.3285642
-98.524765 -6.4611292 6.2525187
-98.435883 -6.3077054 6.2732034
-98.333473 -6.2231679 6.3223448
-98.192513 -6.3541422 6.3989892
-98.304611 -6.0383244 6.2959461
-98.211815 -5.9652958 6.257998
-98.447861 -4.9742613 6.210207
-98.572433 -4.5156116 6.2317047
-98.605194 -4.3963642 6.3005676
-98.455551 -4.2987833 6.2690849
-98.324883 -4.2969027 6.2840629
-98.184746 -4.3554869 6.2606726
-98.236069 -4.1873751 6.3405685
-98.190834 -4.0753822 6.3879042
-98.697601 -3.7628345 6.3432035
-98.467239 -3.5561781 6.202374
-98.45607 -3.1082673 6.2020454
-98.308258 -2.9141006 6.2834239
-98.566589 -2.5023298 6.3127685
-98.256241 -2.1101701 6.3130007
-98.153702 -2.0621138 6.2688913
-98.51088 -1.8078092 6.2494273
0.04868887 -1.8707509 6.3540411
0.33480179 -1.911811 6.3760376
-1.9583759 -1.6243904 6.3397818
-1.2982824 -1.6378721 6.2935781
-0.97399664 -1.6333132 6.3041062
-0.67774147 -1.6322997 6.2658973
0.18134245 -1.673924 6.2735357
0.35597932 -1.6967593 6.3007736
0.46273851 -1.6577471 6.3187408
-98.351326 -1.5513718 6.2751927
-2.0313776 -1.5480888 6.2106023
-1.8728993 -1.5722685 6.3346219
-1.7120805 -1.5399334 6.3024845
-1.513413 -1.5780745 6.2656021
-0.30759478 -1.5914634 6.2087626
0.39175081 -1.5384735 6.2165222
0.45308098 -1.5216516 6.2956572
-1.9530237 -1.3465352 6.3125305
-1.9555795 -1.1129712 6.3192182
0.4645398 -1.1323361 6.3699408
-98.233704 -0.91826653 6.2924943
-5.7034588 -0.85728323 6.3856421
-1.9691753 -0.8528406 6.2398338
-4.5831418 -0.77127147 6.2467284
-3.6942139 -0.79100883 6.2186651
-2.0081491 -0.75157845 6.2434092
-1.9643828 -0.63342535 6.2575426
0.52520514 -0.68171716 6.2718759
-4.2356505 -0.4781692 6.2184687
-1.9697288 -0.40394008 6.2483463
0.54166424 -0.53643024 6.2871294
-1.9697471 -0.39910048 6.2329826
0.55694211 -0.27300313 6.2652817
-98.412399 -0.029112816 6.3676767
-98.219826 -0.14692438 6.206387
-98.050522 -0.045909591 6.3303838
-1.9626119 -0.13475826 6.3135462
0.56774223 -0.085159063 6.2737598
-98.228905 0.05041647 6.2738228
-1.9554715 0.039662957 6.342176
0.55924785 0.031025603 6.2877388
0.58400369 0.20807867 6.2299461
0.60773742 0.30595085 6.3164845
-98.252258 0.42854023 6.2491226
-40.644363 0.56999451 6.2809167
-1.971069 0.52777368 6.3220677
0.5393768 0.59410775 6.3681874
-40.783409 0.60224438 6.2967191
-40.577625 0.61127663 6.2050261
-1.9289782 0.66741097 6.270082
-0.21546781 0.68172967 6.2107
0.15507069 0.65246135 6.3993831
0.62163484 0.75424868 6.2547956
-40.763306 0.939098 6.3644447
-40.551453 0.90159273 6.3472548
-1.933676 0.89842772 6.2839766
-1.6647918 0.9671604 6.27985
-0.96803504 0.90331584 6.2618308
-0.69092125 0.86838859 6.3277411
-0.51215214 0.86943555 6.3394833
-0.20119587 0.86879313 6.2612453
-0.16397342 0.86959934 6.2732267
0.18853937 0.90968132 6.2318664
0.58998942 0.86971426 6.3414984
0.61258197 0.88993621 6.3046818
-98.129013 1.1486088 6.2500515
-40.5303 1.0538356 6.324904
-5.2668695 1.0894082 6.2697787
-5.0674486 1.0769758 6.2958922
-1.9007075 1.0311934 6.2514515
-1.6770639 1.0232291 6.2471352
-40.672436 1.2568991 6.3242731
-40.514824 1.3368975 6.2664146
-3.5295024 1.3096786 6.3647461
-98.137764 1.5955199 6.2940378
-41.964481 1.4650199 6.2361736
-40.509064 1.4148355 6.363615
-5.817059 1.4733112 6.3980947
-5.1455708 1.5876925 6.3133287
-4.9318562 1.5898702 6.31182
-4.7747326 1.5590854 6.259532
-4.0899649 1.4918511 6.2648888
-3.7120316 1.5097795 6.341197
-3.3464551 1.4851851 6.2965269
-3.118012 1.4800932 6.2520766
-98.053482 1.787782 6.3447304
-5.7903233 1.6656393 6.2344737
-5.290781 1.6270266 6.3011866
-5.0844727 1.6140455 6.3047657
-98.097519 1.9785254 6.2688026
-97.973984 1.9107521 6.2270823
-98.005127 2.1146505 6.3222551
-40.439957 2.2838287 6.2459507
-41.930176 2.4838943 6.2437973
-98.060715 3.1203732 6.2387972
-41.899063 3.0054488 6.2441535
-40.410313 3.0273571 6.2413425
-97.940277 3.5586097 6.3244181
-41.875439 3.5117846 6.2213402
-4.3313007 3.583699 6.2167835
-3.9061859 3.5752649 6.3531046
-3.5089636 3.5415764 6.3633776
-3.0701866 3.4911962 6.3091793
-97.980766 3.6054668 6.334549
-41.831787 3.6970172 6.3034925
-41.456314 3.6743393 6.388154
-41.356594 3.6834106 6.2321162
-41.016724 3.6701341 6.2436881
-40.922691 3.6822066 6.3122845
-4.8011546 3.6537118 6.2400908
-4.7147732 3.6397629 6.2556019
-4.5206237 3.6334236 6.3274097
-4.2587852 3.6157002 6.3649769
-97.942543 3.9375968 6.3842006
-97.886429 4.0547657 6.3197069
-41.717949 4.188076 6.2507544
-98.006851 4.3468013 6.2007608
-97.908897 4.2447195 6.2493792
-97.874954 4.7910585 6.2553663
-97.767967 5.5592413 6.222496
-97.81398 5.9202557 6.2568436
-97.793579 5.8826036 6.2334089
-97.823975 6.1444073 6.3277597
-97.619202 7.8308482 6.2396588
-97.564766 7.8338747 6.3339334
-97.618439 8.0730953 6.2046289
-98.408043 -12.404707 6.5709028
54.759857 -12.544952 6.4778652
54.862896 -12.482246 6.5941782
-98.400841 -12.280393 6.5560951
-98.35672 -10.269487 6.5459328
-98.426636 -10.115662 6.5614414
-98.273613 -10.037169 6.5843573
-98.295761 -9.9027843 6.4242582
-98.562485 -8.4750252 6.5459585
-98.468506 -8.3034706 6.5240889
-98.304535 -8.0677204 6.4863968
-98.256912 -7.9550467 6.5648527
-98.311111 -6.2523003 6.4373441
-98.295181 -6.0118256 6.4195623
-98.913475 -5.3045912 6.5254812
-98.404221 -5.0008063 6.4682117
-98.395432 -5.0792031 6.4531469
-98.435928 -4.9934802 6.5593519
-98.812424 -4.592907 6.5666723
-98.435944 -4.353611 6.5144053
-98.32341 -4.2886124 6.5262756
-98.274925 -4.0720949 6.5602603
-98.144783 -4.0204573 6.5657225
-98.60907 -3.4093268 6.5759435
-98.371017 -3.0422654 6.4831629
-98.333214 -2.9087787 6.5890365
-98.476425 -2.3889427 6.5194478
-98.381317 -2.2810826 6.4401851
-98.133675 -2.3021996 6.5303001
-98.618683 -2.0384715 6.4183645
-98.21254 -2.129081 6.4972491
-98.146698 -2.1183858 6.5885286
0.34016627 -1.8276317 6.5495887
-1.8885344 -1.6174784 6.4876919
-1.7859881 -1.6172419 6.5025644
-1.3681153 -1.6206583 6.4598722
-0.95832896 -1.6466761 6.4755898
-0.62090307 -1.670347 6.4849091
-0.31497633 -1.6930108 6.5039368
0.090430357 -1.7533398 6.5059271
0.33688158 -1.7204568 6.5226364
0.46494138 -1.6719422 6.5066032
-2.0263755 -1.5774779 6.416224
-1.9051783 -1.5763841 6.4566116
-1.4028962 -1.568927 6.4866838
-0.96664643 -1.5708748 6.4711175
-0.60150874 -1.5804371 6.5032177
-0.21944377 -1.5934632 6.5446329
0.37587279 -1.5713447 6.5669765
0.45026562 -1.5404743 6.510005
-98.52037 -1.2555099 6.4685416
-1.9661605 -1.314491 6.4832687
0.49257603 -1.3665977 6.5927525
-1.9611948 -1.1396124 6.5137224
0.4771027 -1.1727523 6.4598112
-98.29705 -0.95003176 6.4756093
-5.5909042 -0.87222862 6.4828243
0.50454676 -0.81285489 6.5412889
-5.5197811 -0.79018581 6.4472375
-2.0120902 -0.75053412 6.577117
-1.9695858 -0.67788142 6.5200901
0.51519573 -0.74526352 6.5226493
-4.1703444 -0.55139709 6.5595922
-1.975307 -0.42968911 6.4959927
0.5336948 -0.47468641 6.4891949
-98.067154 -0.26635742 6.549757
-1.9522674 -0.31183523 6.4552612
0.54355878 -0.266606 6.5298862
-98.237465 -0.099050045 6.526895
-98.08934 -0.065071486 6.5490465
-1.9622616 -0.13795063 6.4909744
0.56148148 -0.12265006 6.5251989
-98.163422 0.013693234 6.4665232
-1.9604141 0.057127014 6.5099525
0.55014455 0.04800339 6.5069304
-1.9363351 0.23965782 6.5861912
0.56911176 0.29270482 6.4785233
-98.263725 0.5361011 6.5802221
-1.9752767 0.54267335 6.5611887
0.58306432 0.46957362 6.5853291
0.60621858 0.44889104 6.494792
-3.1675928 0.61335832 6.5143852
-1.9407444 0.72244895 6.5071411
0.55854869 0.75053316 6.4552479
0.61406314 0.71220791 6.4700198
-1.9112449 0.91573489 6.5242453
-1.6776068 0.95882595 6.4845524
-1.4252398 0.94340193 6.5245924
-1.2423223 0.9202581 6.5342841
-1.0768557 0.901492 6.4700451
-0.97003078 0.92182988 6.4733653
-0.59159571 0.86475575 6.5343904
-0.22629933 0.90809405 6.4606457
-0.16736053 0.85206115 6.4724383
0.10811746 0.84979296 6.5728884
0.20522162 0.91457379 6.4814267
0.54534006 0.85767388 6.5172534
0.62112379 0.84521663 6.4822445
-98.119827 1.1089569 6.484993
-40.718182 1.0922964 6.4406614
-5.3955011 1.1557009 6.4669724
-1.8975782 1.0111746 6.4693837
-1.6704799 1.0108554 6.4299698
-0.87047917 1.0320495 6.5290871
-41.990326 1.3632686 6.5100303
-40.679054 1.2916729 6.526145
-40.525101 1.2366264 6.4801226
-3.5359125 1.3488369 6.5812049
-98.104988 1.5144174 6.4994054
-40.708752 1.5533662 6.5610847
-40.515877 1.5158678 6.5384965
-5.7771502 1.5028528 6.5626278
-4.9760828 1.5774817 6.4554543
-4.5304227 1.4889576 6.4816084
-4.3020306 1.5305338 6.5135603
-3.9791071 1.5310624 6.4121327
-3.187479 1.4788227 6.4460583
-41.981178 1.6620573 6.5938883
-40.719368 1.677983 6.5459204
-40.495552 1.6987551 6.4240909
-5.3216562 1.6043108 6.4251924
-98.046432 1.9194634 6.5200243
-97.990776 1.9055583 6.5421991
-40.646099 1.8579121 6.5422873
-40.47776 1.9396019 6.4843216
-98.03334 2.1029832 6.5378485
-97.932899 2.0998774 6.5833044
-40.695831 2.0541353 6.550828
-40.475063 2.1098073 6.4824333
-40.671501 2.3208692 6.5825458
-40.517509 2.336096 6.5304937
-98.035576 2.4079499 6.5076141
-40.683945 2.4522998 6.5883617
-40.451515 2.4694281 6.5648146
-40.651405 2.7051978 6.5863829
-40.503975 2.6960552 6.5820918
-40.398247 2.742568 6.5463953
-40.436031 2.8392606 6.5185041
-97.974487 3.1435688 6.5765605
-40.643749 3.0515695 6.5765181
-40.48798 3.0768664 6.5624514
-40.379375 3.0745528 6.5288625
-4.703548 3.1861303 6.4273605
-98.024132 3.372993 6.4299374
-40.373138 3.3794305 6.5445385
-97.921631 3.5388231 6.528882
-40.39986 3.4100466 6.5953197
-3.8668525 3.5893493 6.4558525
-3.7058818 3.57549 6.4404039
-3.5360169 3.5623507 6.4625793
-3.1131818 3.5354707 6.5199184
-97.928284 3.7130415 6.5323696
-41.364548 3.6793685 6.5582089
-41.047314 3.6456361 6.5958519
-4.9188375 3.6823025 6.443861
-4.5832891 3.6798334 6.5380726
-4.332325 3.6357577 6.4833183
-3.9244761 3.6048868 6.4332957
-3.6889763 3.6058559 6.5354319
-98.011154 3.9723125 6.5353227
-97.913635 3.9481058 6.5243621
-98.01265 4.0396762 6.5734601
-97.952637 4.118576 6.477201
-41.724598 4.1350098 6.437427
-98.00367 4.2129869 6.5351996
-97.845367 4.2399149 6.5897856
-97.802498 5.9254785 6.4373817
-97.526146 7.486599 6.5639648
-98.36171 -12.303895 6.7434263
53.541569 -12.395896 6.6433883
-98.371872 -12.009689 6.6794114
-98.332611 -10.46796 6.6683459
-98.285416 -10.041203 6.6576843
-98.259727 -9.9243412 6.6014338
-98.657555 -9.2795277 6.6058311
-98.339027 -8.425972 6.6446724
-98.453743 -8.3180361 6.6689606
-98.352081 -8.2833586 6.7902455
-98.274521 -8.0306215 6.6837101
-98.617371 -7.2095122 6.7284932
-98.580841 -7.2303185 6.7284346
-98.834663 -7.1793981 6.6328154
-98.577988 -7.1551018 6.64112
-98.827515 -6.5110326 6.718441
-98.562485 -6.4828324 6.6554255
-98.418655 -6.3167858 6.6920404
-98.341354 -6.216197 6.6534195
-98.240623 -6.0360374 6.652504
-98.244728 -5.970932 6.6024699
-98.171745 -5.9903183 6.6098127
-98.573029 -5.5774403 6.6197824
-98.465363 -5.0920205 6.7089052
-98.801834 -4.4486213 6.719378
-98.503853 -4.4194918 6.6408191
-98.308998 -4.427453 6.7004232
-98.471939 -4.2949157 6.653163
-98.321434 -4.2558098 6.6912498
-98.697525 -3.7434754 6.7155347
-98.505226 -3.103827 6.6455526
-98.477959 -2.430841 6.614912
-98.295273 -2.5174937 6.6273875
-98.149185 -2.2142472 6.7739367
-98.11412 -2.1593602 6.6759334
-98.53373 -1.8305538 6.6723013
0.42264968 -1.8170252 6.7126665
-2.0410495 -1.6278138 6.6782255
-1.9535723 -1.6516373 6.7046671
0.36756426 -1.739835 6.6902428
0.45657527 -1.741761 6.7213068
-98.36174 -1.5416381 6.680788
-2.0434716 -1.4618325 6.7095404
-1.9589856 -1.5418199 6.617363
0.48303914 -1.549499 6.7260561
-1.9638326 -1.3158526 6.6517239
0.48196536 -1.3403461 6.659234
-2.0170183 -1.0313029 6.6691389
-1.972206 -1.1353692 6.6368499
0.48833817 -1.0740485 6.6888804
-98.250519 -0.92104745 6.7027931
-7.6294637 -0.91055465 6.6044555
-7.3912754 -0.92020321 6.6347632
-5.8274531 -0.85396498 6.7102523
-3.661216 -0.88242584 6.6118879
-1.976849 -0.8997004 6.6598635
0.50001729 -0.84858418 6.684845
-11.286181 -0.73124635 6.6388621
-11.025952 -0.76704514 6.7549567
-9.4667072 -0.66623217 6.7521763
-9.1171818 -0.65447336 6.7512841
-8.7073612 -0.65322447 6.7758503
-1.9773916 -0.69669479 6.6566148
0.52099752 -0.7406702 6.7476025
-98.211899 -0.49062148 6.636692
-6.3334351 -0.57872319 6.7907019
-1.9738785 -0.4777284 6.6184311
0.53729832 -0.57768798 6.6610069
-98.267632 -0.21510196 6.7923083
-98.192848 -0.35078239 6.6500831
-2.0001571 -0.38852745 6.7713857
-1.966019 -0.29459655 6.7000861
0.5429368 -0.35837805 6.7672596
-98.115143 -0.090117112 6.7396622
-1.962595 -0.15301546 6.7124915
0.55743879 -0.039279945 6.6627584
-98.441414 0.055536509 6.6298318
-98.290253 0.17303205 6.6237292
-1.9596031 0.052214026 6.6820188
0.55892432 0.10793082 6.7119145
-1.954252 0.27290159 6.6932292
0.56254643 0.20087409 6.6970096
0.60122228 0.27835527 6.6985936
-2.0004995 0.59252816 6.602138
-1.9728224 0.44077647 6.6305318
0.56621915 0.50431585 6.7343469
0.62239462 0.50339067 6.7329574
-1.9535537 0.65133381 6.7167206
-0.94781339 0.77529234 6.6223903
-0.64789706 0.73795092 6.6518679
-0.52950227 0.73172712 6.6238422
-0.17993553 0.70460987 6.6613493
0.11314913 0.69662875 6.6930275
0.2623426 0.74035919 6.6938076
0.56964254 0.67601287 6.6968699
0.61473656 0.73092461 6.7710485
-40.8032 0.85219455 6.7904601
-2.0012093 0.84692192 6.7935996
-1.9132829 0.95760155 6.7162294
-1.7299349 0.95088148 6.6822596
-1.5881168 0.98277462 6.682168
-1.0247374 0.93319643 6.7021403
-0.90202916 0.91231889 6.7465591
-0.60870576 0.88080347 6.6544194
-0.57890177 0.83245373 6.6804547
-0.16916406 0.87856477 6.6481314
0.58499634 0.83453107 6.741879
0.60979867 0.8391192 6.695272
-98.144379 1.0728128 6.6771774
-4.5068498 1.0402787 6.7340994
-0.49718612 1.0052221 6.6196952
-98.101753 1.4916451 6.6766119
-40.699009 1.4594517 6.6108737
-6.6106224 1.5563039 6.6900101
-6.1332941 1.5299037 6.6901693
-3.6937156 1.4115372 6.6697159
-98.120483 1.6463373 6.7045317
-42.00198 1.656432 6.7511282
-41.424957 1.7815793 6.7263699
-40.895279 1.7187139 6.6779985
-9.7423515 1.7541838 6.7921729
-3.8516853 1.6758568 6.6368017
-98.080345 1.9759299 6.7439837
-97.976051 1.8657756 6.6223845
-40.697868 1.9580761 6.6280499
-10.668683 1.8687136 6.6171999
-98.129395 2.0807955 6.7798085
-41.957172 2.0771728 6.6150312
-40.679115 2.1409919 6.6965728
-40.474174 2.1313863 6.6167774
-40.680843 2.335784 6.6257305
-41.935875 2.5290802 6.619318
-40.649574 2.4649014 6.6210785
-98.134453 2.696753 6.7087898
-40.661179 2.7197385 6.6183491
-40.422279 2.7862148 6.622354
-40.66991 2.8389962 6.7065034
-98.03212 3.0600433 6.6018867
-41.903942 3.030767 6.6238422
-40.637756 3.0569038 6.6659875
-40.433769 3.0815768 6.6099472
-40.630733 3.3796365 6.6637073
-40.556068 3.3805654 6.6281986
-40.393028 3.3653073 6.6196012
-97.900681 3.5385313 6.6106391
-41.86459 3.4951804 6.6822047
-40.617889 3.4216363 6.6649857
-41.760391 3.7723832 6.6611958
-41.325783 3.6398065 6.7232695
-41.084782 3.6399238 6.7561746
-40.614578 3.6227989 6.7882724
-3.7051821 3.6399837 6.747067
-3.5368929 3.6360979 6.7167816
-98.018883 3.9544175 6.6678834
-97.891373 3.9788144 6.7455831
-40.522511 3.8051519 6.7443628
-98.010971 4.1248984 6.7820892
-97.923386 4.014163 6.7150126
-97.743454 5.5310202 6.6365843
-97.82309 5.9628134 6.718441
-97.862061 6.1624517 6.6186018
-97.625023 6.5957546 6.6602116
-97.61216 7.8939905 6.6201019
-97.631912 8.1125231 6.6004496
53.668472 -12.446011 6.9524679
-98.470184 -10.423761 6.9281979
-98.391899 -10.491022 6.9823422
-98.518272 -10.208633 6.9794312
-98.390518 -10.288305 6.8053937
-98.44088 -10.162373 6.9879508
-98.263359 -10.075871 6.9298768
-98.412354 -9.9947033 6.8219352
-98.516556 -8.5169716 6.9917841
-98.501793 -8.308609 6.9453063
-98.31221 -8.0930042 6.8965092
-98.274475 -7.9559178 6.8317609
-98.581001 -7.2376895 6.9977465
-98.869995 -7.1789584 6.827601
-98.681328 -7.168541 6.9552526
-98.605461 -6.4247236 6.8068547
-98.539246 -6.4833121 6.9246449
-98.435814 -6.3407707 6.9499116
-98.326843 -6.3746696 6.9228439
-98.285469 -6.074481 6.8838267
-98.247406 -5.9752116 6.8580689
-98.70285 -5.5966167 6.8513865
-98.48761 -5.1170511 6.8909292
-98.73848 -4.4865494 6.9588451
-98.408722 -4.4017854 6.8818126
-98.313744 -4.4170985 6.9029016
-98.317535 -4.3017826 6.8954978
-98.166023 -4.0847206 6.9363861
-98.808945 -3.6940327 6.8838091
-98.509285 -3.1003113 6.8457079
-98.346924 -2.9937401 6.9420614
-98.616196 -2.4275174 6.8236904
-98.255554 -2.4531465 6.9297819
-98.425873 -2.382035 6.9002032
-98.265228 -2.2660055 6.9103584
-98.159454 -2.2110403 6.8689427
-98.285347 -2.182332 6.9351587
-98.156311 -2.1813698 6.8286552
0.31096622 -1.816496 6.9375963
0.45222497 -1.8245552 6.930068
-2.0443301 -1.6349765 6.8450336
-1.8532177 -1.6385379 6.9592562
-1.6954787 -1.682637 6.8937483
-1.5041316 -1.6943164 6.9328008
-1.0137777 -1.7212849 6.9869075
-0.61625016 -1.7517865 6.9299698
-0.21698643 -1.7752748 6.9393125
0.098507635 -1.7813191 6.9931722
0.35517889 -1.7551165 6.8882513
0.4588691 -1.6725245 6.8874764
-2.0300708 -1.5041137 6.9128904
-1.8713858 -1.5449724 6.9560871
-1.2607876 -1.5720252 6.9357066
-1.0674903 -1.5929199 6.9624872
0.39458179 -1.5216391 6.9958677
0.40884325 -1.4197671 6.9417462
-2.0408659 -1.3612435 6.9541755
-1.8848565 -1.336019 6.9746757
0.48361617 -1.2770574 6.8607225
-7.4482651 -1.0027599 6.8992882
-2.0320706 -1.104141 6.9877653
-1.8542006 -1.1516047 6.9680085
0.47983027 -1.1027055 6.9214115
-98.264404 -0.95349956 6.9934835
-10.859395 -0.80627787 6.966393
-2.0158691 -0.90785205 6.9675422
-1.8244287 -0.91195476 6.9869881
0.49448013 -0.92234993 6.8849516
-10.861526 -0.76539803 6.9825816
-9.4765186 -0.71350527 6.8560953
-8.9927902 -0.6852476 6.8153229
-8.5477219 -0.61840284 6.8073821
-6.3061957 -0.65448534 6.8307643
-4.274817 -0.6018886 6.8930531
-2.0147576 -0.7667591 6.9783731
-1.8925986 -0.75427836 6.9630532
0.5194031 -0.68134993 6.8831711
-98.215485 -0.48699003 6.9702883
-2.0064092 -0.54983449 6.8581009
-1.9526446 -0.47145623 6.8644719
0.50550574 -0.55300605 6.8901472
-98.132393 -0.2743715 6.9149542
-11.634456 -0.32944751 6.930685
-11.318442 -0.3525548 6.9990091
-1.9731488 -0.31020939 6.942461
0.50946122 -0.25327086 6.8401318
-98.138947 -0.1500852 6.9299884
-1.967329 -0.035566919 6.8559151
0.55332935 -0.14810836 6.918756
-98.410736 0.073946953 6.9856834
-98.331772 0.14090633 6.8965893
-1.9506788 0.10788926 6.9130263
0.56589073 0.15496413 6.8981333
-1.9417377 0.24066313 6.9128523
0.55650878 0.20543933 6.9881926
-98.238655 0.45203733 6.947103
-1.9548289 0.5347625 6.9241085
0.58504504 0.50942653 6.8813038
0.63254434 0.51782233 6.8609815
-40.931725 0.65225041 6.9516144
-1.9607508 0.68552971 6.8641825
0.57567132 0.77323502 6.9336882
0.61175346 0.7699281 6.8590126
-3.5088072 0.97492504 6.9473929
-1.9035301 0.90094209 6.8990302
-1.6935446 0.96052784 6.9351673
-1.0169896 0.86845273 6.9820604
-0.90428555 0.89770269 6.90904
-0.49592987 0.93446147 6.929584
-0.262541 0.92099953 6.9874969
-0.11835217 0.84473479 6.8820305
0.12861179 0.89644194 6.8460336
0.2815249 0.8309679 6.9444799
0.52708948 0.81736994 6.886816
0.61050892 0.82060492 6.9358797
-40.764992 1.1225045 6.8958726
-32.825775 1.1404525 6.8545294
-32.77021 1.1412846 6.8242188
-27.368757 1.0811822 6.9904799
-5.788322 1.1999385 6.9124861
-5.4129753 1.1644073 6.884254
-5.193367 1.0874169 6.8014016
-42.002449 1.2711434 6.9364176
-41.97599 1.2809546 6.8776655
-3.5103183 1.3618875 6.9009008
-98.200066 1.5220915 6.8434224
-98.183243 1.5099826 6.8119054
-40.705864 1.4449294 6.9777899
-40.495354 1.4735334 6.9968863
-6.0606689 1.5347934 6.8453264
-5.3949914 1.4518411 6.9329157
-98.113365 1.7289085 6.9195604
-41.990177 1.680331 6.9530125
-41.512016 1.7896053 6.9900503
-40.945614 1.7080803 6.8008776
-40.686455 1.7118862 6.952764
-40.485474 1.6851757 6.9484735
-29.124422 1.7902498 6.9686422
-28.610268 1.7852354 6.9503002
-28.579445 1.7897339 6.9635997
-9.6630812 1.740811 6.8793321
-98.076645 1.9254646 6.9614992
-97.946091 1.9625634 6.9256001
-40.719479 1.9237674 6.9232326
-40.462936 1.9728144 6.9700317
-32.864517 1.9156466 6.8960538
-32.751278 1.9100316 6.901022
-29.166513 1.8020896 6.958241
-28.698326 1.837815 6.9773331
-28.597515 1.8128517 6.9542875
-10.709464 1.8237004 6.9805784
-98.076248 2.0829525 6.8641057
-97.99472 2.031476 6.9959941
-40.667168 2.0144794 6.9609227
-40.459225 2.0142565 6.9911723
-30.094109 2.1810904 6.9700203
-29.81809 2.1726112 6.9956808
-29.459608 2.1423473 6.9956226
-29.264664 2.1193774 6.992867
-98.076103 2.2865293 6.9288273
-40.661098 2.3188021 6.9580307
-40.443901 2.2970543 6.9890089
-32.860973 2.3010719 6.9407935
-32.509552 2.3405876 6.9539528
-30.024776 2.2238696 6.9957952
-98.139763 2.4166768 6.8241138
-40.645439 2.6301613 6.9988766
-40.618816 2.9451632 6.9823542
-98.04763 3.0901523 6.8794518
-97.990509 3.0785067 6.9774685
-105.08746 3.5384443 6.8511109
-97.956451 3.5294359 6.9093142
-41.620308 3.4759364 6.8976769
-41.557159 3.4786751 6.8718133
-41.031036 3.5907538 6.9768147
-40.602192 3.5909531 6.9137273
-97.857422 3.7372668 6.9230814
-41.767967 3.7265804 6.9762082
-41.474434 3.6132121 6.8928881
-41.298946 3.6201763 6.8024888
-41.09346 3.609441 6.8867874
-3.8599083 3.6557331 6.8310766
-3.7051501 3.7041035 6.9100628
-3.5732241 3.6489892 6.9198537
-97.912643 3.9595189 6.9438581
-98.034241 4.0803881 6.8905845
-97.946732 4.100419 6.9192896
-97.876999 4.207552 6.921598
-3.0179129 4.2015018 6.999259
-97.820206 4.7853174 6.867466
-97.800461 5.4975767 6.9956932
-97.845871 6.2204638 6.9358521
-97.678551 6.5879726 6.9501634
-97.540253 7.4366426 6.9247193
-104.60951 7.8009424 6.9910507
-97.584 8.1374817 6.8865423
54.761562 -12.725132 7.1285481
-98.466026 -12.505432 7.0181942
-98.430222 -12.376972 7.0473399
53.472565 -12.309057 7.0414577
-98.396301 -12.094427 7.1228514
-98.474075 -10.343123 7.0142932
-98.454613 -10.126591 7.0967951
-98.284439 -10.106874 7.1314297
-98.704292 -9.3974743 7.0623512
-98.347801 -8.4608459 7.0923409
-98.425201 -8.3331814 7.151659
-98.37175 -8.1106501 7.1006918
-98.194427 -8.0482502 7.0687327
-98.835342 -6.5513525 7.0183978
-98.486504 -6.5214405 7.1474032
-98.340622 -6.4290686 7.0848646
-98.32457 -6.3911166 7.0035443
-98.288818 -6.0764117 7.0678015
-98.548386 -5.4048634 7.139679
-99.005585 -5.31918 7.0524144
-98.525589 -5.1530828 7.069068
-98.815659 -4.6692896 7.1468105
-98.769928 -4.5243945 7.0806632
-98.496841 -4.4429455 7.0661097
-98.32663 -4.4439983 7.0334997
-98.446281 -4.3533325 7.0736055
-98.290817 -4.3199883 7.1102428
-98.196449 -4.1178989 7.1509933
-98.692429 -3.756793 7.0771904
-98.646729 -3.4106956 7.038928
-98.5457 -3.5487883 7.108561
-98.461639 -3.0918612 7.0547471
-98.31749 -3.1160271 7.1506548
-98.505318 -2.4819579 7.0700798
-98.235367 -2.476151 7.1445847
-98.54274 -1.8023933 7.0543656
0.34772474 -1.8642907 7.0709524
0.42641407 -1.8188174 7.0329394
-1.8564141 -1.6740086 7.0637412
-1.7626605 -1.6840219 7.1137943
0.37927496 -1.736683 7.1191158
0.45251143 -1.7237496 7.0534954
-98.376862 -1.5331051 7.0786595
-1.8679183 -1.4421099 7.0629129
-1.7711791 -1.4795476 7.176054
-0.20568259 -1.595872 7.1470008
0.38199574 -1.5386274 7.0125542
0.50621355 -1.5508115 7.0805988
-98.526634 -1.2641521 7.0130453
-1.8302908 -1.2563353 7.0356398
-1.7913563 -1.3218178 7.161315
0.46116972 -1.289047 7.0587683
-98.197166 -1.0524426 7.065474
-3.5014117 -1.0238806 7.1056514
-2.0241864 -1.0441036 7.0038223
-1.8637301 -1.0475461 7.0209894
-1.7745047 -1.0731144 7.1504221
0.49079067 -1.0532707 7.0911479
-2.0209177 -0.83005261 7.0326185
-1.8397343 -0.90830886 7.0383706
-1.7961105 -0.88373673 7.03267
0.47846034 -0.93561536 7.0542259
-10.797438 -0.78117812 7.0681186
-10.393931 -0.77320063 7.1959352
-4.4179649 -0.6647042 7.0801492
-2.0118976 -0.7389704 7.0452104
-1.8180242 -0.66979414 7.088232
-1.7915254 -0.66824967 7.0886393
0.51040602 -0.69197917 7.0978684
-98.30983 -0.48775625 7.0904722
-2.0051041 -0.54559541 7.0518317
-1.874136 -0.53808439 7.0696106
-1.7784438 -0.50156862 7.1287422
0.52841043 -0.53188968 7.0959253
-98.120209 -0.22264415 7.096365
-11.031018 -0.39454055 7.1699758
-2.0025756 -0.32074767 7.080409
-1.9031384 -0.32772538 7.1041021
-1.7816439 -0.35071731 7.1253691
0.53429359 -0.34957042 7.1673374
-98.246368 -0.17983329 7.1583638
-98.104462 -0.08837416 7.0914536
-2.0036466 -0.15914001 7.1887398
-1.8583139 -0.085853361 7.1216202
-1.76843 -0.094880447 7.1279626
0.55308139 -0.12249784 7.0752873
-11.356102 0.1014536 7.0256338
-1.8655367 0.016549196 7.1052513
-1.7844563 0.027862392 7.1451712
0.57009959 0.13328627 7.0666175
-2.0020623 0.36597219 7.1717949
-1.8710359 0.23803964 7.1344085
-1.7716231 0.25441429 7.1531954
0.58922255 0.22836868 7.0025449
-11.340052 0.55425495 7.0440378
-2.0037925 0.58512741 7.1736507
-1.928718 0.58562213 7.0950823
-1.7587192 0.51840633 7.1946964
0.57002223 0.45999849 7.0516171
0.62813556 0.47296554 7.1601987
-41.355301 0.7694335 7.0743771
-2.0073743 0.61258101 7.1736517
-1.9419696 0.62722915 7.1907959
-1.7287104 0.66138184 7.1735053
-0.4447543 0.79398644 7.0951414
-0.38830501 0.78109002 7.1764321
-0.15422469 0.78264081 7.1361403
0.24716263 0.76152843 7.1069622
0.58093429 0.76335311 7.1034298
0.61227298 0.73423982 7.1087399
-98.217331 0.87353468 7.0524225
-98.117439 0.98322535 7.1583343
-27.286285 0.99444121 7.0926929
-27.070679 0.93051571 7.0534263
-11.188869 0.97209352 7.1510277
-2.0023365 0.86556739 7.1101794
-1.8867214 0.83637607 7.1849136
-1.6837854 0.88628078 7.1127253
-1.5374253 0.85720688 7.1969194
-1.3885498 0.89089221 7.0079374
-1.0092973 0.94761604 7.0288358
-0.93873334 0.91055799 7.1360054
-0.54195273 0.84095097 7.0951977
-0.3569611 0.80988479 7.1440053
-0.15767489 0.82180536 7.0427661
0.3280707 0.91586846 7.1476383
0.56431937 0.82004732 7.0745707
0.6274178 0.8384459 7.0577412
-98.123184 1.0750427 7.0081677
-41.778587 1.1564935 7.1503143
-41.354553 1.1575961 7.1119671
-40.966343 1.1211486 7.1294994
-30.084301 1.0855598 7.0637617
-29.733992 1.1784165 7.0996008
-29.324162 1.1827388 7.1075211
-28.479441 1.1085773 7.1752014
-27.709988 1.1081936 7.061636
-27.062401 1.1038836 7.0852342
-26.944485 1.1248019 7.0854759
-26.789806 1.1419036 7.0299273
-11.45723 1.0298727 7.0633063
-4.6381073 1.1216457 7.0879807
-30.186157 1.3057659 7.0836453
-29.776037 1.3500093 7.1094322
-29.423687 1.3158951 7.1248775
-27.270912 1.3245761 7.1126842
-26.935825 1.3027035 7.1023254
-26.657013 1.3646234 7.1314902
-98.085785 1.5297314 7.0432463
-40.725143 1.4764829 7.0317912
-40.498253 1.4319681 7.0684843
-29.913925 1.4754736 7.109478
-29.766872 1.5589609 7.060719
-29.597197 1.4913325 7.0711331
-28.476418 1.4234889 7.1919136
-27.074043 1.5146129 7.13517
-26.98612 1.4213504 7.1135478
-11.510893 1.4870794 7.1540561
-5.6709466 1.4977574 7.016149
-98.120399 1.6783866 7.0618668
-40.99868 1.7319984 7.002964
-40.627953 1.7925889 7.0012722
-40.48901 1.7837722 7.0638003
-30.16007 1.784126 7.061657
-29.952366 1.7754428 7.1637774
-29.70019 1.7500455 7.0830069
-29.365686 1.7872459 7.0668745
-29.083538 1.762471 7.1584578
-28.931442 1.7822893 7.1904325
-28.585417 1.7512648 7.0408349
-28.319691 1.7619936 7.0614624
-27.313129 1.6435872 7.1621895
-27.043552 1.6249874 7.1026444
-26.91634 1.6679353 7.1583347
-26.665207 1.6594796 7.1452732
-9.3996611 1.7034185 7.0181441
-97.941139 1.9117119 7.0361943
-41.926746 1.8833972 7.0088592
-40.688141 1.8999486 7.0097218
-40.470181 1.9664127 7.010931
-30.166986 1.8600172 7.0977678
-29.923784 1.8474207 7.1675863
-29.708256 1.851083 7.0349407
-29.555973 1.8391593 7.0957203
-29.368401 1.8182802 7.1693954
-29.118885 1.8677309 7.1475344
-28.940804 1.8457946 7.0821514
-28.692482 1.8450549 7.1761589
-27.313896 1.9032261 7.0990257
-27.058483 1.9145722 7.1544266
-26.840515 1.8824204 7.1879582
-26.730221 1.9139863 7.1636963
-97.959206 2.021755 7.0997
-40.654404 2.0241001 7.0117884
-40.465561 2.027241 7.0603147
-30.12813 2.1815691 7.1161728
-28.996506 2.1091037 7.0053844
-28.618563 2.1640258 7.0033898
-27.134201 2.1666012 7.1774597
-98.215141 2.297823 7.1532855
-41.958145 2.2126064 7.0038085
-40.687241 2.272882 7.093317
-40.473591 2.3019001 7.0453606
-30.06546 2.2073054 7.0020113
-29.82093 2.243238 7.0456729
-28.354282 2.2586651 7.050725
-27.323738 2.2885916 7.1060443
-40.658035 2.56881 7.0692396
-40.419872 2.5883451 7.1242976
-30.060484 2.5129869 7.0511179
-29.885744 2.5130043 7.0406828
-29.25573 2.4395828 7.0524478
-29.068333 2.5668938 7.0695782
-27.839272 2.5387759 7.107728
-27.673761 2.5614886 7.1228266
-27.279186 2.5444081 7.1342287
-11.461323 2.4069552 7.165812
-41.934067 2.7572787 7.0218153
-40.65625 2.6315887 7.0672855
-40.57753 2.626884 7.054327
-32.860985 2.7390323 7.174407
-32.669838 2.6977162 7.0104475
-32.361786 2.6731315 7.01894
-30.202923 2.6120713 7.0872374
-29.420811 2.6079171 7.0581031
-29.230515 2.7668684 7.0444145
-28.630386 2.6720366 7.0791464
-28.202509 2.6442552 7.086875
-27.839645 2.6689992 7.097559
-27.701433 2.6646347 7.0817256
-27.501373 2.6649377 7.1376009
-27.249096 2.6317954 7.113616
-27.151489 2.6077878 7.1945205
-3.2906663 2.7959335 7.1752167
-3.0428905 2.7734504 7.1754794
-98.020149 2.980252 7.0690188
-97.99958 2.9873986 7.0832448
-40.616409 2.8960116 7.1199398
-40.588028 2.933001 7.1154675
-40.397583 2.9139295 7.1239762
-30.054728 2.8526309 7.1011553
-29.96743 2.8697286 7.05967
-29.770254 2.8317437 7.0694842
-29.432064 2.9123387 7.0852675
-29.013626 2.9823766 7.0983257
-28.585331 2.9977748 7.1119728
-28.249611 2.9650717 7.1178298
-27.712067 2.916357 7.1471887
-27.542559 2.9150724 7.1285691
-27.076233 2.9829202 7.132781
-41.906593 3.1285093 7.0253201
-40.6422 3.1050391 7.1125326
-40.581947 3.1819322 7.1282444
-40.383953 3.1915212 7.1532993
-32.871788 3.1058378 7.0115619
-32.533642 3.0619416 7.0202808
-32.275429 3.0327568 7.0236683
-29.201904 3.0848646 7.1070457
-27.862404 3.0210743 7.1345253
-27.696415 3.0360808 7.1323352
-27.476044 3.0504098 7.1336179
-26.587284 3.0838592 7.1509819
-26.346531 3.0932291 7.1551886
-5.2298622 3.043082 7.1933494
-4.9853783 3.1921806 7.1805172
-4.5310698 3.1729813 7.1902313
-4.1327705 3.1329451 7.1972566
-3.7290492 3.1058948 7.1946335
-3.3481486 3.1589882 7.1811957
-3.0357182 3.1953468 7.1810217
-40.622288 3.3132653 7.0589952
-40.5774 3.2203984 7.1692333
-40.376823 3.220274 7.1727724
-32.298698 3.3998055 7.0516338
-30.091724 3.3256254 7.1687684
-29.787985 3.3192332 7.0974569
-29.404831 3.2903543 7.1035004
-29.066505 3.3217061 7.1091976
-28.636864 3.3148973 7.1186714
-28.23769 3.2302527 7.1275654
-27.902645 3.2387574 7.1439958
-27.137524 3.2463405 7.1669073
-26.570776 3.2986 7.1800756
-26.243408 3.2681141 7.1722221
-25.373711 3.3170681 7.1695342
-6.1554179 3.3522832 7.1634617
-5.7121196 3.2974811 7.1530142
-5.5688324 3.261821 7.117281
-5.3436852 3.2606745 7.1627026
-4.9195437 3.3889418 7.1580348
-4.1722937 3.3950737 7.1632271
-3.7394381 3.3006496 7.1747608
-3.4191062 3.2345474 7.1836677
-3.0281475 3.2358179 7.1740437
-98.000587 3.4559433 7.056952
-41.85997 3.4941945 7.0798616
-41.435738 3.5786567 7.0942373
-40.571976 3.5169034 7.1379137
-32.900772 3.486485 7.0336895
-32.492622 3.4225771 7.042428
-30.062428 3.5147586 7.0733151
-29.978611 3.5288715 7.1070738
-28.714058 3.4182479 7.1252632
-6.9009943 3.4427569 7.1570921
-6.5929422 3.4038401 7.1543579
-4.4843407 3.5150313 7.1494122
-4.0528378 3.4732788 7.1719542
-3.9851761 3.4634705 7.1035285
-97.960747 3.7022486 7.0292826
-27.977776 3.6990051 7.1615157
-6.5672264 3.7704654 7.1144242
-6.1969223 3.7210011 7.1191869
-5.8022671 3.6638155 7.1126528
-5.2790613 3.625648 7.1208448
